ply
format ascii 1.0
element vertex 1114
property float x
property float y
property float z
property uchar red
property uchar green
property uchar blue
end_header
-1.502183 2.666667 -11.942940 217 228 193 
-1.478894 2.666667 -11.942940 204 210 176 
-1.455604 2.666667 -11.942940 204 209 177 
-1.432314 2.666667 -11.942940 218 226 193 
-1.409025 2.666667 -11.942940 221 232 198 
-1.385735 2.666667 -11.942940 224 231 195 
-1.362445 2.666667 -11.942940 227 224 187 
-1.339156 2.666667 -11.942940 217 198 165 
-1.315866 2.666667 -11.942940 201 163 140 
0.854430 1.449367 -6.491139 178 150 86 
0.867089 1.449367 -6.491139 166 146 85 
0.879747 1.449367 -6.491139 137 136 75 
0.892405 1.449367 -6.491139 145 160 100 
0.905063 1.449367 -6.491139 153 175 121 
0.917722 1.449367 -6.491139 145 165 116 
-2.125000 2.579545 -11.654545 215 208 174 
-2.102273 2.579545 -11.654545 222 217 185 
-2.079545 2.579545 -11.654545 204 208 175 
-2.053901 2.575886 -11.638014 174 189 153 
-2.028329 2.572238 -11.621530 173 196 160 
-2.005666 2.572238 -11.621530 184 211 179 
-1.985816 2.575886 -11.638014 183 208 179 
-1.965909 2.579545 -11.654545 175 196 167 
-1.943182 2.579545 -11.654545 186 202 174 
-1.923186 2.583215 -11.671124 210 220 192 
-1.903134 2.586895 -11.687749 225 231 202 
-1.888412 2.597997 -11.737911 229 233 203 
-1.870875 2.605452 -11.771592 232 234 204 
-1.853237 2.612950 -11.805468 218 222 192 
-1.835498 2.620491 -11.839538 206 210 181 
-1.815029 2.624277 -11.856647 227 229 200 
-1.794501 2.628075 -11.873806 236 235 206 
-1.773913 2.631884 -11.891014 232 232 202 
-1.750725 2.631884 -11.891014 230 233 201 
-1.730044 2.635704 -11.908273 217 223 189 
-1.709302 2.639535 -11.925581 198 209 174 
-1.686046 2.639535 -11.925581 196 211 176 
-1.662791 2.639535 -11.925581 201 218 182 
-1.639535 2.639535 -11.925581 213 228 193 
-1.616279 2.639535 -11.925581 211 224 190 
-1.593023 2.639535 -11.925581 191 204 171 
-1.569767 2.639535 -11.925581 186 199 167 
-1.546512 2.639535 -11.925581 192 207 175 
-1.523256 2.639535 -11.925581 202 218 185 
-1.500000 2.639535 -11.925581 216 227 193 
-1.478894 2.643377 -11.942940 216 222 189 
-1.455604 2.643377 -11.942940 205 210 178 
-1.432314 2.643377 -11.942940 208 214 182 
-1.409025 2.643377 -11.942940 216 224 189 
-1.387755 2.647230 -11.960350 221 224 187 
-1.364432 2.647230 -11.960350 214 202 167 
-1.339156 2.643377 -11.942940 193 164 132 
-1.315866 2.643377 -11.942940 196 146 126 
-1.292576 2.643377 -11.942940 205 149 134 
0.867089 1.436709 -6.491139 175 156 97 
0.879747 1.436709 -6.491139 141 139 79 
0.892405 1.436709 -6.491139 132 146 85 
0.905063 1.436709 -6.491139 148 173 116 
0.917722 1.436709 -6.491139 150 177 124 
0.930380 1.436709 -6.491139 137 159 107 
-2.125000 2.556818 -11.654545 181 178 144 
-2.102273 2.556818 -11.654545 189 190 157 
-2.079545 2.556818 -11.654545 179 188 155 
-2.056818 2.556818 -11.654545 177 196 162 
-2.031206 2.553191 -11.638014 183 207 174 
-2.008511 2.553191 -11.638014 180 202 173 
-1.988636 2.556818 -11.654545 177 195 168 
-1.965909 2.556818 -11.654545 198 211 183 
-1.945946 2.560455 -11.671124 223 230 202 
-1.923186 2.560455 -11.671124 231 233 204 
-1.905849 2.567760 -11.704422 233 233 204 
-1.888412 2.575107 -11.737911 232 232 204 
-1.870875 2.582496 -11.771592 233 234 205 
-1.853237 2.589928 -11.805468 227 233 204 
-1.835498 2.597403 -11.839538 224 231 202 
-1.815029 2.601156 -11.856647 232 235 206 
-1.791908 2.601156 -11.856647 232 232 203 
-1.771346 2.604920 -11.873806 231 231 202 
-1.750725 2.608696 -11.891014 230 233 202 
-1.727536 2.608696 -11.891014 222 229 195 
-1.706821 2.612482 -11.908273 202 213 179 
-1.686046 2.616279 -11.925581 187 206 173 
-1.662791 2.616279 -11.925581 184 205 173 
-1.639535 2.616279 -11.925581 194 213 182 
-1.616279 2.616279 -11.925581 210 228 197 
-1.593023 2.616279 -11.925581 197 215 184 
-1.569767 2.616279 -11.925581 180 199 168 
-1.546512 2.616279 -11.925581 175 196 165 
-1.523256 2.616279 -11.925581 182 204 171 
-1.500000 2.616279 -11.925581 209 224 190 
-1.476744 2.616279 -11.925581 220 229 196 
-1.455604 2.620087 -11.942940 216 224 192 
-1.432314 2.620087 -11.942940 211 218 186 
-1.411079 2.623907 -11.960350 209 214 180 
-1.387755 2.623907 -11.960350 201 198 163 
-1.364432 2.623907 -11.960350 188 167 134 
-1.341108 2.623907 -11.960350 184 145 117 
-1.315866 2.620087 -11.942940 195 141 122 
-1.292576 2.620087 -11.942940 203 149 134 
-1.269287 2.620087 -11.942940 215 170 153 
0.867089 1.424051 -6.491139 195 180 124 
0.879747 1.424051 -6.491139 162 159 103 
0.892405 1.424051 -6.491139 128 139 80 
0.905063 1.424051 -6.491139 133 156 98 
0.917722 1.424051 -6.491139 147 174 117 
0.930380 1.424051 -6.491139 148 173 118 
-2.125000 2.534091 -11.654545 188 195 159 
-2.102273 2.534091 -11.654545 171 183 149 
-2.079545 2.534091 -11.654545 181 198 166 
-2.056818 2.534091 -11.654545 186 207 177 
-2.034091 2.534091 -11.654545 176 200 171 
-2.011364 2.534091 -11.654545 175 194 167 
-1.988636 2.534091 -11.654545 202 215 188 
-1.968706 2.537696 -11.671124 224 232 203 
-1.945946 2.537696 -11.671124 230 234 204 
-1.928673 2.544936 -11.704422 231 232 201 
-1.911302 2.552217 -11.737911 229 232 202 
-1.891117 2.555874 -11.754727 226 232 203 
-1.876259 2.566906 -11.805468 221 232 203 
-1.855908 2.570605 -11.822478 218 232 203 
-1.835498 2.574315 -11.839538 219 232 203 
-1.815029 2.578035 -11.856647 223 231 203 
-1.791908 2.578035 -11.856647 226 229 201 
-1.771346 2.581766 -11.873806 229 230 202 
-1.750725 2.585507 -11.891014 229 232 203 
-1.727536 2.585507 -11.891014 227 235 203 
-1.706821 2.589260 -11.908273 213 225 192 
-1.683599 2.589260 -11.908273 187 209 180 
-1.660377 2.589260 -11.908273 178 203 177 
-1.637155 2.589260 -11.908273 182 205 179 
-1.616279 2.593023 -11.925581 202 224 197 
-1.593023 2.593023 -11.925581 205 227 199 
-1.569767 2.593023 -11.925581 189 213 183 
-1.546512 2.593023 -11.925581 176 201 170 
-1.523256 2.593023 -11.925581 175 201 169 
-1.500000 2.593023 -11.925581 199 219 185 
-1.476744 2.593023 -11.925581 210 225 192 
-1.455604 2.596798 -11.942940 210 221 190 
-1.432314 2.596798 -11.942940 210 219 188 
-1.409025 2.596798 -11.942940 210 215 182 
-1.387755 2.600583 -11.960350 192 185 153 
-1.364432 2.600583 -11.960350 177 149 120 
-1.341108 2.600583 -11.960350 185 138 113 
-1.315866 2.596798 -11.942940 194 142 123 
-1.292576 2.596798 -11.942940 202 156 140 
-1.269287 2.596798 -11.942940 207 169 151 
0.879747 1.411392 -6.491139 191 185 129 
0.892405 1.411392 -6.491139 153 155 97 
0.905063 1.411392 -6.491139 130 140 81 
0.917722 1.411392 -6.491139 135 150 93 
-2.102273 2.511364 -11.654545 173 194 159 
-2.079545 2.511364 -11.654545 186 209 177 
-2.056818 2.511364 -11.654545 177 200 172 
-2.034091 2.511364 -11.654545 172 193 167 
-2.011364 2.511364 -11.654545 198 215 187 
-1.991465 2.514936 -11.671124 222 234 204 
-1.971510 2.518518 -11.687749 228 235 204 
-1.951498 2.522111 -11.704422 229 234 202 
-1.934192 2.529328 -11.737911 223 228 196 
-1.914040 2.532951 -11.754727 210 221 189 
-1.899281 2.543885 -11.805468 198 216 185 
-1.878963 2.547550 -11.822478 190 214 183 
-1.858586 2.551227 -11.839538 187 212 181 
-1.835498 2.551227 -11.839538 192 212 182 
-1.815029 2.554913 -11.856647 200 214 185 
-1.791908 2.554913 -11.856647 212 220 192 
-1.771346 2.558611 -11.873806 221 225 198 
-1.750725 2.562319 -11.891014 221 227 198 
-1.727536 2.562319 -11.891014 216 226 195 
-1.706821 2.566038 -11.908273 206 221 190 
-1.683599 2.566038 -11.908273 187 211 186 
-1.660377 2.566038 -11.908273 180 207 184 
-1.637155 2.566038 -11.908273 184 208 186 
-1.613933 2.566038 -11.908273 191 214 190 
-1.593023 2.569767 -11.925581 194 217 190 
-1.569767 2.569767 -11.925581 186 211 182 
-1.546512 2.569767 -11.925581 175 204 173 
-1.523256 2.569767 -11.925581 173 202 170 
-1.500000 2.569767 -11.925581 185 210 177 
-1.476744 2.569767 -11.925581 196 214 183 
-1.453488 2.569767 -11.925581 198 211 181 
-1.432314 2.573508 -11.942940 198 209 178 
-1.409025 2.573508 -11.942940 198 203 171 
-1.385735 2.573508 -11.942940 181 171 140 
-1.364432 2.577260 -11.960350 174 141 114 
-1.341108 2.577260 -11.960350 185 133 110 
-1.315866 2.573508 -11.942940 199 151 132 
-1.290698 2.569767 -11.925581 223 185 166 
-1.267442 2.569767 -11.925581 230 197 178 
0.892405 1.398734 -6.491139 186 176 119 
0.905063 1.398734 -6.491139 163 156 99 
0.917722 1.398734 -6.491139 138 136 80 
-2.036984 2.492176 -11.671124 195 211 182 
-2.017094 2.495727 -11.687749 221 231 200 
-2.000000 2.502857 -11.721143 230 236 204 
-1.977143 2.502857 -11.721143 229 233 202 
-1.957082 2.506438 -11.737911 219 224 193 
-1.942529 2.517241 -11.788506 201 211 180 
-1.925072 2.524496 -11.822478 185 205 174 
-1.904762 2.528139 -11.839538 174 205 173 
-1.881674 2.528139 -11.839538 169 207 174 
-1.858586 2.528139 -11.839538 171 205 174 
-1.838150 2.531792 -11.856647 176 202 173 
-1.815029 2.531792 -11.856647 181 201 172 
-1.794501 2.535456 -11.873806 192 207 179 
-1.771346 2.535456 -11.873806 201 215 186 
-1.748191 2.535456 -11.873806 202 218 189 
-1.727536 2.539130 -11.891014 193 214 185 
-1.704348 2.539130 -11.891014 181 208 178 
-1.683599 2.542816 -11.908273 174 206 177 
-1.660377 2.542816 -11.908273 184 212 185 
-1.637155 2.542816 -11.908273 200 220 194 
-1.613933 2.542816 -11.908273 206 221 195 
-1.590711 2.542816 -11.908273 203 221 193 
-1.567489 2.542816 -11.908273 187 213 183 
-1.544267 2.542816 -11.908273 173 204 174 
-1.523256 2.546512 -11.925581 172 203 174 
-1.500000 2.546512 -11.925581 191 213 183 
-1.476744 2.546512 -11.925581 212 226 196 
-1.453488 2.546512 -11.925581 217 226 196 
-1.432314 2.550218 -11.942940 217 223 191 
-1.409025 2.550218 -11.942940 212 212 179 
-1.385735 2.550218 -11.942940 185 170 139 
-1.362445 2.550218 -11.942940 178 142 115 
-1.339156 2.550218 -11.942940 187 134 111 
-1.315866 2.550218 -11.942940 196 147 127 
-1.290698 2.546512 -11.925581 215 175 156 
-1.267442 2.546512 -11.925581 226 188 170 
0.905063 1.386076 -6.491139 188 169 112 
0.917722 1.386076 -6.491139 164 148 92 
-2.026049 2.512301 -11.873806 230 234 201 
-1.994236 2.501441 -11.822478 231 233 202 
-1.971182 2.501441 -11.822478 221 224 194 
-1.950938 2.505050 -11.839538 204 213 183 
-1.930636 2.508671 -11.856647 187 206 176 
-1.907514 2.508671 -11.856647 175 204 172 
-1.884393 2.508671 -11.856647 170 206 173 
-1.861272 2.508671 -11.856647 174 205 174 
-1.838150 2.508671 -11.856647 183 206 178 
-1.817656 2.512301 -11.873806 195 213 184 
-1.794501 2.512301 -11.873806 209 224 194 
-1.771346 2.512301 -11.873806 215 230 199 
-1.748191 2.512301 -11.873806 208 228 197 
-1.725036 2.512301 -11.873806 189 214 184 
-1.704348 2.515942 -11.891014 174 205 174 
-1.681159 2.515942 -11.891014 175 205 174 
-1.657971 2.515942 -11.891014 198 221 191 
-1.634783 2.515942 -11.891014 219 233 204 
-1.611594 2.515942 -11.891014 222 233 204 
-1.590711 2.519594 -11.908273 208 224 193 
-1.567489 2.519594 -11.908273 184 208 177 
-1.544267 2.519594 -11.908273 174 203 173 
-1.521045 2.519594 -11.908273 179 206 178 
-1.500000 2.523256 -11.925581 202 221 191 
-1.476744 2.523256 -11.925581 222 233 203 
-1.453488 2.523256 -11.925581 223 230 199 
-1.430233 2.523256 -11.925581 223 226 194 
-1.409025 2.526929 -11.942940 218 216 182 
-1.385735 2.526929 -11.942940 193 178 146 
-1.362445 2.526929 -11.942940 182 148 120 
-1.339156 2.526929 -11.942940 190 139 116 
-1.313954 2.523256 -11.925581 191 140 119 
-1.290698 2.523256 -11.925581 211 165 146 
0.905063 1.373418 -6.491139 171 157 100 
0.917722 1.373418 -6.491139 159 149 93 
-2.002894 2.489146 -11.873806 232 234 203 
-1.979740 2.489146 -11.873806 231 233 203 
-1.956585 2.489146 -11.873806 227 231 202 
-1.930636 2.485549 -11.856647 215 224 194 
-1.907514 2.485549 -11.856647 204 220 188 
-1.884393 2.485549 -11.856647 201 221 188 
-1.861272 2.485549 -11.856647 205 222 192 
-1.838150 2.485549 -11.856647 214 227 198 
-1.815029 2.485549 -11.856647 220 231 201 
-1.794501 2.489146 -11.873806 224 233 201 
-1.771346 2.489146 -11.873806 222 232 200 
-1.748191 2.489146 -11.873806 204 219 187 
-1.725036 2.489146 -11.873806 183 204 172 
-1.704348 2.492754 -11.891014 179 203 171 
-1.681159 2.492754 -11.891014 193 213 182 
-1.657971 2.492754 -11.891014 217 229 199 
-1.634783 2.492754 -11.891014 227 235 205 
-1.611594 2.492754 -11.891014 219 228 196 
-1.588406 2.492754 -11.891014 194 210 176 
-1.565217 2.492754 -11.891014 181 203 170 
-1.544267 2.496372 -11.908273 186 208 178 
-1.521045 2.496372 -11.908273 199 216 189 
-1.500000 2.500000 -11.925581 214 229 200 
-1.476744 2.500000 -11.925581 221 232 202 
-1.453488 2.500000 -11.925581 214 220 190 
-1.430233 2.500000 -11.925581 208 212 180 
-1.409025 2.503639 -11.942940 207 208 174 
-1.385735 2.503639 -11.942940 200 190 157 
-1.362445 2.503639 -11.942940 186 159 130 
-1.339156 2.503639 -11.942940 187 143 118 
-1.313954 2.500000 -11.925581 189 140 117 
-1.290698 2.500000 -11.925581 205 155 135 
-2.034884 2.476744 -11.925581 223 232 202 
-2.005797 2.469565 -11.891014 229 234 204 
-1.979740 2.465991 -11.873806 231 233 203 
-1.956585 2.465991 -11.873806 231 232 202 
-1.933430 2.465991 -11.873806 230 230 200 
-1.907514 2.462428 -11.856647 228 232 199 
-1.884393 2.462428 -11.856647 225 231 198 
-1.861272 2.462428 -11.856647 224 230 199 
-1.838150 2.462428 -11.856647 228 232 203 
-1.815029 2.462428 -11.856647 230 232 201 
-1.791908 2.462428 -11.856647 230 232 199 
-1.768786 2.462428 -11.856647 223 228 194 
-1.748191 2.465991 -11.873806 200 210 176 
-1.725036 2.465991 -11.873806 194 208 175 
-1.701881 2.465991 -11.873806 201 217 185 
-1.681159 2.469565 -11.891014 219 227 197 
-1.657971 2.469565 -11.891014 231 233 204 
-1.634783 2.469565 -11.891014 232 233 203 
-1.611594 2.469565 -11.891014 217 224 190 
-1.588406 2.469565 -11.891014 194 210 173 
-1.565217 2.469565 -11.891014 197 216 181 
-1.542029 2.469565 -11.891014 210 225 194 
-1.521045 2.473150 -11.908273 222 230 204 
-1.497823 2.473150 -11.908273 216 226 197 
-1.476744 2.476744 -11.925581 205 215 184 
-1.453488 2.476744 -11.925581 204 210 180 
-1.430233 2.476744 -11.925581 211 216 184 
-1.406977 2.476744 -11.925581 217 221 187 
-1.385735 2.480349 -11.942940 221 217 183 
-1.362445 2.480349 -11.942940 208 190 160 
-1.337209 2.476744 -11.925581 194 160 134 
-1.313954 2.476744 -11.925581 192 148 123 
-1.290698 2.476744 -11.925581 201 152 130 
-2.034884 2.453488 -11.925581 201 216 186 
-2.005797 2.446377 -11.891014 221 232 202 
-1.979740 2.442837 -11.873806 227 233 203 
-1.956585 2.442837 -11.873806 230 232 202 
-1.930636 2.439306 -11.856647 234 232 202 
-1.907514 2.439306 -11.856647 234 232 200 
-1.884393 2.439306 -11.856647 219 217 185 
-1.858586 2.435786 -11.839538 205 205 175 
-1.835498 2.435786 -11.839538 222 222 192 
-1.815029 2.439306 -11.856647 232 231 199 
-1.791908 2.439306 -11.856647 232 232 197 
-1.768786 2.439306 -11.856647 222 224 189 
-1.745665 2.439306 -11.856647 214 220 185 
-1.725036 2.442837 -11.873806 220 229 195 
-1.701881 2.442837 -11.873806 223 233 201 
-1.678726 2.442837 -11.873806 231 233 203 
-1.655572 2.442837 -11.873806 236 232 203 
-1.634783 2.446377 -11.891014 236 233 203 
-1.611594 2.446377 -11.891014 224 228 194 
-1.588406 2.446377 -11.891014 213 226 190 
-1.565217 2.446377 -11.891014 219 236 200 
-1.542029 2.446377 -11.891014 224 236 205 
-1.521045 2.449927 -11.908273 219 225 199 
-1.497823 2.449927 -11.908273 203 212 183 
-1.476744 2.453488 -11.925581 200 208 178 
-1.453488 2.453488 -11.925581 214 220 190 
-1.430233 2.453488 -11.925581 223 229 197 
-1.406977 2.453488 -11.925581 223 230 195 
-1.383721 2.453488 -11.925581 224 228 193 
-1.360465 2.453488 -11.925581 225 218 186 
-1.337209 2.453488 -11.925581 221 201 171 
-1.313954 2.453488 -11.925581 209 176 149 
-2.011628 2.430233 -11.925581 189 207 177 
-1.982609 2.423188 -11.891014 211 225 195 
-1.956585 2.419682 -11.873806 224 233 202 
-1.930636 2.416185 -11.856647 231 236 205 
-1.907514 2.416185 -11.856647 231 233 202 
-1.884393 2.416185 -11.856647 212 213 183 
-1.858586 2.412699 -11.839538 202 202 173 
-1.835498 2.412699 -11.839538 219 220 190 
-1.815029 2.416185 -11.856647 230 231 198 
-1.791908 2.416185 -11.856647 230 232 197 
-1.768786 2.416185 -11.856647 229 231 195 
-1.745665 2.416185 -11.856647 229 233 198 
-1.722543 2.416185 -11.856647 229 235 202 
-1.701881 2.419682 -11.873806 227 233 202 
-1.678726 2.419682 -11.873806 229 231 201 
-1.655572 2.419682 -11.873806 234 231 202 
-1.632417 2.419682 -11.873806 237 232 203 
-1.611594 2.423188 -11.891014 232 232 200 
-1.588406 2.423188 -11.891014 225 234 199 
-1.565217 2.423188 -11.891014 223 238 203 
-1.544267 2.426705 -11.908273 219 233 202 
-1.521045 2.426705 -11.908273 207 217 189 
-1.500000 2.430233 -11.925581 208 218 189 
-1.476744 2.430233 -11.925581 210 218 187 
-1.453488 2.430233 -11.925581 214 219 189 
-1.430233 2.430233 -11.925581 219 226 194 
-1.406977 2.430233 -11.925581 217 228 193 
-1.383721 2.430233 -11.925581 217 228 192 
-1.360465 2.430233 -11.925581 221 224 191 
-1.337209 2.430233 -11.925581 228 220 190 
-1.313954 2.430233 -11.925581 229 210 181 
-2.011628 2.406977 -11.925581 163 189 158 
-1.985486 2.403483 -11.908273 170 193 162 
-1.956585 2.396527 -11.873806 188 207 177 
-1.933430 2.396527 -11.873806 209 224 194 
-1.907514 2.393064 -11.856647 219 231 201 
-1.884393 2.393064 -11.856647 218 228 198 
-1.858586 2.389610 -11.839538 217 224 195 
-1.835498 2.389610 -11.839538 221 227 195 
-1.815029 2.393064 -11.856647 225 231 197 
-1.791908 2.393064 -11.856647 227 232 197 
-1.768786 2.393064 -11.856647 229 233 197 
-1.745665 2.393064 -11.856647 228 232 198 
-1.722543 2.393064 -11.856647 226 230 198 
-1.701881 2.396527 -11.873806 212 215 185 
-1.678726 2.396527 -11.873806 213 218 189 
-1.655572 2.396527 -11.873806 229 230 201 
-1.632417 2.396527 -11.873806 235 230 201 
-1.611594 2.400000 -11.891014 233 230 200 
-1.588406 2.400000 -11.891014 226 231 199 
-1.565217 2.400000 -11.891014 213 227 194 
-1.544267 2.403483 -11.908273 202 221 190 
-1.521045 2.403483 -11.908273 195 213 183 
-1.500000 2.406977 -11.925581 214 227 197 
-1.476744 2.406977 -11.925581 224 231 201 
-1.453488 2.406977 -11.925581 217 222 192 
-1.430233 2.406977 -11.925581 205 213 180 
-1.406977 2.406977 -11.925581 198 212 177 
-1.383721 2.406977 -11.925581 199 215 179 
-1.360465 2.406977 -11.925581 210 221 186 
-1.337209 2.406977 -11.925581 215 218 186 
-2.011628 2.383721 -11.925581 179 210 179 
-1.985486 2.380261 -11.908273 166 196 166 
-1.959420 2.376812 -11.891014 158 184 155 
-1.933430 2.373372 -11.873806 165 189 160 
-1.910275 2.373372 -11.873806 175 195 167 
-1.884393 2.369942 -11.856647 184 202 174 
-1.861272 2.369942 -11.856647 194 209 180 
-1.838150 2.369942 -11.856647 200 213 182 
-1.815029 2.369942 -11.856647 204 215 183 
-1.791908 2.369942 -11.856647 206 216 183 
-1.768786 2.369942 -11.856647 209 217 183 
-1.745665 2.369942 -11.856647 220 227 194 
-1.722543 2.369942 -11.856647 223 227 197 
-1.699422 2.369942 -11.856647 201 204 175 
-1.676301 2.369942 -11.856647 203 211 182 
-1.655572 2.373372 -11.873806 225 230 201 
-1.632417 2.373372 -11.873806 233 229 202 
-1.609262 2.373372 -11.873806 229 225 197 
-1.588406 2.376812 -11.891014 211 215 185 
-1.565217 2.376812 -11.891014 193 208 177 
-1.544267 2.380261 -11.908273 182 206 174 
-1.521045 2.380261 -11.908273 184 209 180 
-1.497823 2.380261 -11.908273 208 224 194 
-1.476744 2.383721 -11.925581 226 233 203 
-1.453488 2.383721 -11.925581 225 230 200 
-1.430233 2.383721 -11.925581 207 215 183 
-1.406977 2.383721 -11.925581 188 202 167 
-1.383721 2.383721 -11.925581 182 200 163 
-1.360465 2.383721 -11.925581 192 208 172 
-2.011628 2.360465 -11.925581 186 217 187 
-1.988372 2.360465 -11.925581 184 216 189 
-1.959420 2.353623 -11.891014 179 210 184 
-1.936232 2.353623 -11.891014 171 200 174 
-1.910275 2.350217 -11.873806 164 190 163 
-1.887120 2.350217 -11.873806 160 184 157 
-1.861272 2.346821 -11.856647 159 186 159 
-1.838150 2.346821 -11.856647 160 188 162 
-1.815029 2.346821 -11.856647 162 187 161 
-1.791908 2.346821 -11.856647 164 185 159 
-1.766234 2.343434 -11.839538 167 184 157 
-1.743146 2.343434 -11.839538 193 206 178 
-1.720058 2.343434 -11.839538 218 228 198 
-1.696970 2.343434 -11.839538 216 224 192 
-1.673882 2.343434 -11.839538 220 227 196 
-1.653179 2.346821 -11.856647 229 233 202 
-1.630058 2.346821 -11.856647 230 229 199 
-1.606936 2.346821 -11.856647 216 217 186 
-1.586107 2.350217 -11.873806 200 208 176 
-1.565217 2.353623 -11.891014 191 211 178 
-1.542029 2.353623 -11.891014 179 208 177 
-1.518841 2.353623 -11.891014 173 206 176 
-1.497823 2.357039 -11.908273 193 213 184 
-1.476744 2.360465 -11.925581 220 229 201 
-1.453488 2.360465 -11.925581 226 232 203 
-1.430233 2.360465 -11.925581 221 226 196 
-1.406977 2.360465 -11.925581 207 215 181 
-1.383721 2.360465 -11.925581 193 206 169 
-1.360465 2.360465 -11.925581 192 209 168 
-2.011628 2.337209 -11.925581 185 208 183 
-1.988372 2.337209 -11.925581 187 215 191 
-1.962264 2.333817 -11.908273 187 216 192 
-1.936232 2.330435 -11.891014 188 217 191 
-1.910275 2.327062 -11.873806 185 214 184 
-1.887120 2.327062 -11.873806 182 210 179 
-1.861272 2.323699 -11.856647 179 209 180 
-1.838150 2.323699 -11.856647 175 206 180 
-1.815029 2.323699 -11.856647 175 205 180 
-1.789322 2.320346 -11.839538 176 204 179 
-1.766234 2.320346 -11.839538 172 197 172 
-1.743146 2.320346 -11.839538 167 187 160 
-1.717579 2.317003 -11.822478 200 216 186 
-1.696970 2.320346 -11.839538 221 233 201 
-1.673882 2.320346 -11.839538 226 233 202 
-1.650794 2.320346 -11.839538 228 231 200 
-1.627706 2.320346 -11.839538 229 230 199 
-1.604618 2.320346 -11.839538 222 224 191 
-1.583815 2.323699 -11.856647 216 223 190 
-1.562952 2.327062 -11.873806 211 227 194 
-1.539797 2.327062 -11.873806 191 216 185 
-1.518841 2.330435 -11.891014 174 205 175 
-1.495652 2.330435 -11.891014 182 205 176 
-1.474601 2.333817 -11.908273 207 223 193 
-1.453488 2.337209 -11.925581 223 232 203 
-1.430233 2.337209 -11.925581 226 230 200 
-1.406977 2.337209 -11.925581 223 226 194 
-1.383721 2.337209 -11.925581 218 223 188 
-2.011628 2.313953 -11.925581 166 179 161 
-1.988372 2.313953 -11.925581 172 190 170 
-1.962264 2.310595 -11.908273 177 199 174 
-1.936232 2.307246 -11.891014 180 205 174 
-1.913043 2.307246 -11.891014 180 206 169 
-1.887120 2.303907 -11.873806 182 207 168 
-1.861272 2.300578 -11.856647 186 207 172 
-1.838150 2.300578 -11.856647 183 204 172 
-1.815029 2.300578 -11.856647 183 209 178 
-1.789322 2.297258 -11.839538 184 214 183 
-1.766234 2.297258 -11.839538 183 213 183 
-1.740634 2.293948 -11.822478 164 191 161 
-1.717579 2.293948 -11.822478 167 187 158 
-1.694525 2.293948 -11.822478 202 217 187 
-1.671470 2.293948 -11.822478 220 230 200 
-1.648415 2.293948 -11.822478 227 232 202 
-1.625360 2.293948 -11.822478 230 232 201 
-1.604618 2.297258 -11.839538 231 231 200 
-1.581530 2.297258 -11.839538 231 233 201 
-1.560694 2.300578 -11.856647 227 234 202 
-1.539797 2.303907 -11.873806 208 222 190 
-1.516643 2.303907 -11.873806 186 205 174 
-1.495652 2.307246 -11.891014 179 201 169 
-1.474601 2.310595 -11.908273 200 219 188 
-1.453488 2.313953 -11.925581 221 233 203 
-1.430233 2.313953 -11.925581 223 227 198 
-1.406977 2.313953 -11.925581 227 226 196 
-1.383721 2.313953 -11.925581 227 225 194 
-1.988372 2.290698 -11.925581 163 173 152 
-1.965116 2.290698 -11.925581 161 173 144 
-1.939042 2.287373 -11.908273 162 174 139 
-1.913043 2.284058 -11.891014 164 176 134 
-1.887120 2.280752 -11.873806 167 177 133 
-1.861272 2.277457 -11.856647 171 177 135 
-1.838150 2.277457 -11.856647 166 174 136 
-1.812410 2.274170 -11.839538 168 186 149 
-1.789322 2.274170 -11.839538 181 209 174 
-1.763689 2.270893 -11.822478 183 215 182 
-1.738129 2.267626 -11.805468 175 206 175 
-1.715108 2.267626 -11.805468 157 182 153 
-1.692086 2.267626 -11.805468 168 187 160 
-1.669065 2.267626 -11.805468 203 216 188 
-1.648415 2.270893 -11.822478 222 231 202 
-1.625360 2.270893 -11.822478 228 233 204 
-1.602306 2.270893 -11.822478 229 230 201 
-1.581530 2.274170 -11.839538 232 231 201 
-1.558442 2.274170 -11.839538 231 231 200 
-1.537572 2.277457 -11.856647 225 227 196 
-1.516643 2.280752 -11.873806 207 213 182 
-1.493488 2.280752 -11.873806 190 203 172 
-1.472464 2.284058 -11.891014 203 217 186 
-1.451379 2.287373 -11.908273 218 226 197 
-1.430233 2.290698 -11.925581 207 209 182 
-1.406977 2.290698 -11.925581 217 215 187 
-1.383721 2.290698 -11.925581 228 225 197 
-1.965116 2.267442 -11.925581 182 181 148 
-1.939042 2.264151 -11.908273 184 179 141 
-1.913043 2.260870 -11.891014 186 177 134 
-1.887120 2.257598 -11.873806 186 176 129 
-1.861272 2.254335 -11.856647 186 175 129 
-1.835498 2.251082 -11.839538 178 174 129 
-1.812410 2.251082 -11.839538 164 172 129 
-1.786744 2.247839 -11.822478 171 192 152 
-1.761151 2.244604 -11.805468 182 210 174 
-1.738129 2.244604 -11.805468 180 211 178 
-1.710186 2.238163 -11.771592 175 201 172 
-1.687231 2.238163 -11.771592 160 183 156 
-1.664275 2.238163 -11.771592 167 185 157 
-1.643678 2.241379 -11.788506 194 208 180 
-1.623022 2.244604 -11.805468 219 229 201 
-1.600000 2.244604 -11.805468 227 232 205 
-1.579251 2.247839 -11.822478 231 232 205 
-1.558442 2.251082 -11.839538 232 230 202 
-1.535354 2.251082 -11.839538 233 231 201 
-1.514451 2.254335 -11.856647 226 226 195 
-1.493488 2.257598 -11.873806 211 215 186 
-1.472464 2.260870 -11.891014 216 220 192 
-1.451379 2.264151 -11.908273 219 220 194 
-1.430233 2.267442 -11.925581 200 199 173 
-1.406977 2.267442 -11.925581 212 213 186 
-1.383721 2.267442 -11.925581 220 225 197 
-1.915820 2.240929 -11.908273 211 187 142 
-1.887120 2.234443 -11.873806 214 187 140 
-1.858586 2.227994 -11.839538 210 189 139 
-1.835498 2.227994 -11.839538 202 189 139 
-1.812410 2.227994 -11.839538 180 176 131 
-1.786744 2.224784 -11.822478 164 172 131 
-1.761151 2.221583 -11.805468 179 197 161 
-1.733142 2.215208 -11.771592 183 208 175 
-1.705293 2.208870 -11.737911 183 209 179 
-1.682403 2.208870 -11.737911 178 204 175 
-1.661891 2.212034 -11.754727 164 188 159 
-1.638968 2.212034 -11.754727 160 181 153 
-1.618364 2.215208 -11.771592 184 200 174 
-1.600000 2.221583 -11.805468 207 220 195 
-1.576978 2.221583 -11.805468 221 229 204 
-1.556196 2.224784 -11.822478 227 233 206 
-1.535354 2.227994 -11.839538 228 232 203 
-1.514451 2.231214 -11.856647 228 231 201 
-1.493488 2.234443 -11.873806 225 228 199 
-1.470333 2.234443 -11.873806 226 227 199 
-1.451379 2.240929 -11.908273 226 226 200 
-1.428157 2.240929 -11.908273 217 218 193 
-1.406977 2.244186 -11.925581 216 223 197 
-1.383721 2.244186 -11.925581 196 211 183 
-1.360465 2.244186 -11.925581 171 196 166 
-1.887120 2.211288 -11.873806 219 190 142 
-1.858586 2.204906 -11.839538 216 193 140 
-1.832853 2.201729 -11.822478 208 189 136 
-1.809798 2.201729 -11.822478 200 186 140 
-1.784173 2.198561 -11.805468 175 169 129 
-1.756098 2.192252 -11.771592 167 171 136 
-1.728183 2.185980 -11.737911 180 195 162 
-1.705293 2.185980 -11.737911 184 208 177 
-1.680000 2.182857 -11.721143 181 211 180 
-1.657143 2.182857 -11.721143 178 207 176 
-1.636624 2.185980 -11.737911 170 197 167 
-1.616046 2.189112 -11.754727 162 187 160 
-1.595409 2.192252 -11.771592 164 185 162 
-1.576978 2.198561 -11.805468 179 198 174 
-1.556196 2.201729 -11.822478 194 211 186 
-1.535354 2.204906 -11.839538 203 218 191 
-1.514451 2.208092 -11.856647 209 223 193 
-1.493488 2.211288 -11.873806 212 225 193 
-1.470333 2.211288 -11.873806 215 225 194 
-1.449275 2.214493 -11.891014 216 225 196 
-1.428157 2.217707 -11.908273 214 223 196 
-1.406977 2.220930 -11.925581 200 214 188 
-1.383721 2.220930 -11.925581 173 194 167 
-1.360465 2.220930 -11.925581 180 209 181 
-1.855908 2.178674 -11.822478 227 206 151 
-1.827586 2.172414 -11.788506 219 199 145 
-1.804598 2.172414 -11.788506 211 191 145 
-1.779053 2.169297 -11.771592 196 181 141 
-1.751073 2.163090 -11.737911 172 165 131 
-1.728183 2.163090 -11.737911 162 168 135 
-1.702857 2.160000 -11.721143 174 195 160 
-1.680000 2.160000 -11.721143 180 210 175 
-1.657143 2.160000 -11.721143 181 213 180 
-1.634286 2.160000 -11.721143 180 212 181 
-1.613734 2.163090 -11.737911 179 209 183 
-1.593123 2.166189 -11.754727 172 201 178 
-1.574713 2.172414 -11.788506 165 192 170 
-1.556196 2.178674 -11.822478 159 184 161 
-1.533141 2.178674 -11.822478 157 181 155 
-1.512266 2.181818 -11.839538 162 185 156 
-1.491329 2.184971 -11.856647 166 191 157 
-1.470333 2.188133 -11.873806 169 193 158 
-1.447178 2.188133 -11.873806 172 193 161 
-1.426087 2.191304 -11.891014 176 195 166 
-1.404935 2.194485 -11.908273 172 191 164 
-1.383721 2.197675 -11.925581 176 200 173 
-1.360465 2.197675 -11.925581 192 220 194 
-1.847920 2.146342 -11.771592 232 213 162 
-1.817143 2.137143 -11.721143 232 217 167 
-1.796853 2.140200 -11.737911 227 212 165 
-1.773963 2.140200 -11.737911 215 200 157 
-1.751073 2.140200 -11.737911 195 184 144 
-1.725714 2.137143 -11.721143 169 167 128 
-1.700428 2.134094 -11.704422 163 169 129 
-1.677603 2.134094 -11.704422 172 187 147 
-1.654779 2.134094 -11.704422 178 204 165 
-1.634286 2.137143 -11.721143 180 211 176 
-1.611429 2.137143 -11.721143 186 218 187 
-1.590844 2.140200 -11.737911 189 220 193 
-1.572453 2.146342 -11.771592 186 215 191 
-1.553957 2.152518 -11.805468 179 206 183 
-1.533141 2.155620 -11.822478 174 199 175 
-1.512266 2.158730 -11.839538 170 195 169 
-1.491329 2.161850 -11.856647 166 195 165 
-1.470333 2.164978 -11.873806 163 195 163 
-1.447178 2.164978 -11.873806 167 198 167 
-1.426087 2.168116 -11.891014 175 206 176 
-1.404935 2.171263 -11.908273 182 212 183 
-1.383721 2.174419 -11.925581 190 219 191 
-1.360465 2.174419 -11.925581 191 219 192 
-1.860200 2.111270 -11.704422 212 188 139 
-1.834758 2.108262 -11.687749 212 195 148 
-1.814551 2.111270 -11.704422 220 207 159 
-1.794286 2.114286 -11.721143 226 213 166 
-1.771429 2.114286 -11.721143 227 213 167 
-1.748571 2.114286 -11.721143 219 205 160 
-1.723253 2.111270 -11.704422 199 188 144 
-1.700428 2.111270 -11.704422 185 178 134 
-1.677603 2.111270 -11.704422 175 173 129 
-1.654779 2.111270 -11.704422 168 174 133 
-1.631954 2.111270 -11.704422 169 183 144 
-1.611429 2.114286 -11.721143 179 199 164 
-1.590844 2.117311 -11.737911 186 211 179 
-1.572453 2.123386 -11.771592 185 214 184 
-1.553957 2.129496 -11.805468 186 216 187 
-1.533141 2.132565 -11.822478 186 214 186 
-1.512266 2.135642 -11.839538 188 214 186 
-1.491329 2.138728 -11.856647 188 215 187 
-1.470333 2.141824 -11.873806 186 216 188 
-1.447178 2.141824 -11.873806 187 218 189 
-1.426087 2.144928 -11.891014 188 221 192 
-1.404935 2.148041 -11.908273 192 224 195 
-1.383721 2.151163 -11.925581 193 222 194 
-1.857550 2.085470 -11.687749 221 204 158 
-1.834758 2.085470 -11.687749 220 207 160 
-1.811966 2.085470 -11.687749 223 211 163 
-1.791726 2.088445 -11.704422 225 210 163 
-1.771429 2.091429 -11.721143 228 210 163 
-1.748571 2.091429 -11.721143 230 210 163 
-1.725714 2.091429 -11.721143 222 203 156 
-1.700428 2.088445 -11.704422 214 197 148 
-1.677603 2.088445 -11.704422 205 189 140 
-1.654779 2.088445 -11.704422 194 177 135 
-1.634286 2.091429 -11.721143 180 170 132 
-1.613734 2.094421 -11.737911 173 175 138 
-1.593123 2.097421 -11.754727 165 184 146 
-1.576978 2.106475 -11.805468 161 191 154 
-1.556196 2.109510 -11.822478 169 204 168 
-1.535354 2.112554 -11.839538 182 216 181 
-1.514451 2.115607 -11.856647 188 218 185 
-1.493488 2.118669 -11.873806 190 217 188 
-1.470333 2.118669 -11.873806 194 219 192 
-1.449275 2.121739 -11.891014 195 222 195 
-1.426087 2.121739 -11.891014 195 222 195 
-1.404935 2.124819 -11.908273 197 224 197 
-1.383721 2.127907 -11.925581 193 218 191 
-1.857550 2.062678 -11.687749 230 214 166 
-1.834758 2.062678 -11.687749 227 215 166 
-1.814551 2.065621 -11.704422 226 214 165 
-1.791726 2.065621 -11.704422 229 212 165 
-1.771429 2.068571 -11.721143 231 210 162 
-1.748571 2.068571 -11.721143 231 207 159 
-1.725714 2.068571 -11.721143 226 201 152 
-1.702857 2.068571 -11.721143 220 196 144 
-1.680000 2.068571 -11.721143 215 191 139 
-1.657143 2.068571 -11.721143 212 186 144 
-1.634286 2.068571 -11.721143 204 185 148 
-1.613734 2.071531 -11.737911 183 183 145 
-1.595409 2.077475 -11.771592 156 175 136 
-1.576978 2.083453 -11.805468 143 176 138 
-1.558442 2.089466 -11.839538 157 194 157 
-1.537572 2.092486 -11.856647 177 212 177 
-1.516643 2.095514 -11.873806 187 218 186 
-1.493488 2.095514 -11.873806 190 217 188 
-1.472464 2.098551 -11.891014 194 220 193 
-1.449275 2.098551 -11.891014 197 223 196 
-1.426087 2.098551 -11.891014 196 222 195 
-1.404935 2.101597 -11.908273 195 222 195 
-1.383721 2.104651 -11.925581 192 218 191 
-1.360465 2.104651 -11.925581 176 200 174 
-1.814551 2.042796 -11.704422 213 199 150 
-1.794286 2.045714 -11.721143 223 205 156 
-1.771429 2.045714 -11.721143 226 205 156 
-1.748571 2.045714 -11.721143 223 201 151 
-1.725714 2.045714 -11.721143 214 191 141 
-1.702857 2.045714 -11.721143 210 189 137 
-1.680000 2.045714 -11.721143 207 187 137 
-1.657143 2.045714 -11.721143 196 181 139 
-1.636624 2.048641 -11.737911 182 177 141 
-1.613734 2.048641 -11.737911 166 178 142 
-1.597701 2.057471 -11.788506 155 182 146 
-1.579251 2.063401 -11.822478 164 199 166 
-1.558442 2.066378 -11.839538 176 211 180 
-1.537572 2.069364 -11.856647 184 214 186 
-1.516643 2.072359 -11.873806 190 215 188 
-1.495652 2.075362 -11.891014 187 215 188 
-1.472464 2.075362 -11.891014 187 217 189 
-1.449275 2.075362 -11.891014 185 214 187 
-1.426087 2.075362 -11.891014 182 211 183 
-1.404935 2.078374 -11.908273 183 212 184 
-1.383721 2.081395 -11.925581 189 218 190 
-1.360465 2.081395 -11.925581 184 214 186 
-1.840810 2.049204 -11.873806 227 210 160 
-1.802009 2.031564 -11.771592 231 213 163 
-1.776504 2.028653 -11.754727 224 206 157 
-1.753582 2.028653 -11.754727 213 196 149 
-1.728183 2.025751 -11.737911 203 189 143 
-1.705293 2.025751 -11.737911 192 182 136 
-1.682403 2.025751 -11.737911 180 175 129 
-1.659514 2.025751 -11.737911 167 173 134 
-1.636624 2.025751 -11.737911 166 182 148 
-1.620690 2.034483 -11.788506 174 198 166 
-1.602306 2.040346 -11.822478 178 208 179 
-1.581530 2.043290 -11.839538 183 215 188 
-1.560694 2.046243 -11.856647 185 215 190 
-1.539797 2.049204 -11.873806 185 209 186 
-1.516643 2.049204 -11.873806 183 203 180 
-1.495652 2.052174 -11.891014 173 199 173 
-1.472464 2.052174 -11.891014 170 200 172 
-1.449275 2.052174 -11.891014 169 197 170 
-1.428157 2.055152 -11.908273 168 196 168 
-1.404935 2.055152 -11.908273 167 196 168 
-1.383721 2.058140 -11.925581 184 213 185 
-1.360465 2.058140 -11.925581 189 221 192 
-1.337209 2.058140 -11.925581 182 214 185 
-1.848837 2.034884 -11.925581 219 199 147 
-1.817656 2.026049 -11.873806 211 193 144 
-1.791908 2.023121 -11.856647 204 190 143 
-1.763689 2.017291 -11.822478 193 185 141 
-1.738129 2.014389 -11.805468 177 177 135 
-1.715108 2.014389 -11.805468 166 173 133 
-1.692086 2.014389 -11.805468 169 183 143 
-1.669065 2.014389 -11.805468 176 198 161 
-1.646043 2.014389 -11.805468 183 209 176 
-1.625360 2.017291 -11.822478 186 212 182 
-1.604618 2.020202 -11.839538 184 208 182 
-1.583815 2.023121 -11.856647 180 204 179 
-1.562952 2.026049 -11.873806 175 197 173 
-1.539797 2.026049 -11.873806 172 192 168 
-1.518841 2.028986 -11.891014 176 195 170 
-1.495652 2.028986 -11.891014 181 203 177 
-1.474601 2.031930 -11.908273 190 213 187 
-1.451379 2.031930 -11.908273 202 223 198 
-1.428157 2.031930 -11.908273 207 227 202 
-1.404935 2.031930 -11.908273 183 203 178 
-1.383721 2.034884 -11.925581 175 198 172 
-1.360465 2.034884 -11.925581 188 215 188 
-1.337209 2.034884 -11.925581 191 220 192 
-1.313954 2.034884 -11.925581 186 216 186 
-1.848837 2.011628 -11.925581 206 187 136 
-1.822932 2.008708 -11.908273 200 185 137 
-1.797101 2.005797 -11.891014 188 181 136 
-1.768786 2.000000 -11.856647 174 177 136 
-1.745665 2.000000 -11.856647 166 178 140 
-1.722543 2.000000 -11.856647 170 191 155 
-1.696970 1.997114 -11.839538 180 207 172 
-1.673882 1.997114 -11.839538 183 210 176 
-1.650794 1.997114 -11.839538 180 204 172 
-1.627706 1.997114 -11.839538 178 197 169 
-1.606936 2.000000 -11.856647 178 194 169 
-1.586107 2.002894 -11.873806 183 198 173 
-1.562952 2.002894 -11.873806 191 208 181 
-1.542029 2.005797 -11.891014 197 215 186 
-1.518841 2.005797 -11.891014 196 216 186 
-1.497823 2.008708 -11.908273 197 215 188 
-1.474601 2.008708 -11.908273 198 212 188 
-1.451379 2.008708 -11.908273 212 223 201 
-1.428157 2.008708 -11.908273 227 236 214 
-1.404935 2.008708 -11.908273 214 224 202 
-1.383721 2.011628 -11.925581 182 196 173 
-1.360465 2.011628 -11.925581 178 196 171 
-1.337209 2.011628 -11.925581 189 213 186 
-1.313954 2.011628 -11.925581 191 220 190 
-1.290698 2.011628 -11.925581 186 218 188 
-1.848837 1.988372 -11.925581 193 185 140 
-1.825581 1.988372 -11.925581 178 178 136 
-1.799710 1.985486 -11.908273 168 177 139 
-1.773913 1.982609 -11.891014 173 191 155 
-1.748191 1.979740 -11.873806 178 202 167 
-1.725036 1.979740 -11.873806 178 206 169 
-1.701881 1.979740 -11.873806 175 203 166 
-1.678726 1.979740 -11.873806 177 197 164 
-1.655572 1.979740 -11.873806 183 198 167 
-1.632417 1.979740 -11.873806 188 203 173 
-1.611594 1.982609 -11.891014 196 211 182 
-1.588406 1.982609 -11.891014 208 223 195 
-1.565217 1.982609 -11.891014 212 229 200 
-1.544267 1.985486 -11.908273 203 221 191 
-1.521045 1.985486 -11.908273 191 209 179 
-1.497823 1.985486 -11.908273 196 214 185 
-1.474601 1.985486 -11.908273 210 224 196 
-1.451379 1.985486 -11.908273 223 231 206 
-1.428157 1.985486 -11.908273 234 236 214 
-1.406977 1.988372 -11.925581 232 235 213 
-1.383721 1.988372 -11.925581 216 224 199 
-1.360465 1.988372 -11.925581 188 203 177 
-1.337209 1.988372 -11.925581 176 198 170 
-1.313954 1.988372 -11.925581 182 208 178 
-1.290698 1.988372 -11.925581 185 215 184 
-1.267442 1.988372 -11.925581 182 215 183 
-1.825581 1.965116 -11.925581 167 179 141 
-1.802326 1.965116 -11.925581 174 193 160 
-1.776488 1.962264 -11.908273 180 206 174 
-1.753266 1.962264 -11.908273 177 204 171 
-1.727536 1.959420 -11.891014 172 197 160 
-1.704348 1.959420 -11.891014 181 202 164 
-1.681159 1.959420 -11.891014 201 212 179 
-1.657971 1.959420 -11.891014 215 224 192 
-1.634783 1.959420 -11.891014 204 217 185 
-1.611594 1.959420 -11.891014 192 208 176 
-1.590711 1.962264 -11.908273 197 216 184 
-1.567489 1.962264 -11.908273 197 215 185 
-1.544267 1.962264 -11.908273 188 205 176 
-1.521045 1.962264 -11.908273 187 203 174 
-1.497823 1.962264 -11.908273 204 220 191 
-1.474601 1.962264 -11.908273 223 236 207 
-1.451379 1.962264 -11.908273 229 236 210 
-1.428157 1.962264 -11.908273 234 235 211 
-1.404935 1.962264 -11.908273 233 233 209 
-1.381713 1.962264 -11.908273 230 233 210 
-1.360465 1.965116 -11.925581 220 229 204 
-1.337209 1.965116 -11.925581 192 205 179 
-1.313954 1.965116 -11.925581 170 181 155 
-1.290698 1.965116 -11.925581 171 185 157 
-1.267442 1.965116 -11.925581 174 195 165 
-1.244186 1.965116 -11.925581 180 203 173 
-1.825581 1.941860 -11.925581 177 196 160 
-1.802326 1.941860 -11.925581 178 201 168 
-1.779070 1.941860 -11.925581 173 196 166 
-1.753266 1.939042 -11.908273 172 193 161 
-1.730044 1.939042 -11.908273 188 204 170 
-1.706821 1.939042 -11.908273 209 220 184 
-1.681159 1.936232 -11.891014 221 226 192 
-1.657971 1.936232 -11.891014 224 229 196 
-1.634783 1.936232 -11.891014 208 217 184 
-1.613933 1.939042 -11.908273 187 201 168 
-1.590711 1.939042 -11.908273 181 199 167 
-1.567489 1.939042 -11.908273 180 199 169 
-1.544267 1.939042 -11.908273 183 201 173 
-1.521045 1.939042 -11.908273 196 213 186 
-1.497823 1.939042 -11.908273 216 228 203 
-1.474601 1.939042 -11.908273 228 236 211 
-1.451379 1.939042 -11.908273 232 237 213 
-1.428157 1.939042 -11.908273 231 233 210 
-1.404935 1.939042 -11.908273 216 216 194 
-1.381713 1.939042 -11.908273 219 218 197 
-1.358491 1.939042 -11.908273 235 233 212 
-1.335268 1.939042 -11.908273 223 219 198 
-1.313954 1.941860 -11.925581 187 174 154 
-1.290698 1.941860 -11.925581 167 154 133 
-1.267442 1.941860 -11.925581 159 156 131 
-1.244186 1.941860 -11.925581 166 169 142 
-1.825581 1.918605 -11.925581 179 202 169 
-1.802326 1.918605 -11.925581 170 192 161 
-1.779070 1.918605 -11.925581 167 186 156 
-1.753266 1.915820 -11.908273 193 206 175 
-1.730044 1.915820 -11.908273 205 211 178 
-1.706821 1.915820 -11.908273 208 210 176 
-1.681159 1.913043 -11.891014 222 222 187 
-1.657971 1.913043 -11.891014 225 226 191 
-1.634783 1.913043 -11.891014 219 225 190 
-1.613933 1.915820 -11.908273 197 208 174 
-1.590711 1.915820 -11.908273 179 195 163 
-1.567489 1.915820 -11.908273 181 199 169 
-1.544267 1.915820 -11.908273 198 216 188 
-1.521045 1.915820 -11.908273 213 230 203 
-1.497823 1.915820 -11.908273 219 231 206 
-1.474601 1.915820 -11.908273 222 231 206 
-1.451379 1.915820 -11.908273 226 234 209 
-1.428157 1.915820 -11.908273 226 232 208 
-1.404935 1.915820 -11.908273 212 215 191 
-1.381713 1.915820 -11.908273 220 217 195 
-1.358491 1.915820 -11.908273 241 231 211 
-1.335268 1.915820 -11.908273 226 209 191 
-1.313954 1.918605 -11.925581 198 167 151 
-1.290698 1.918605 -11.925581 188 156 138 
-1.267442 1.918605 -11.925581 177 155 133 
-1.244186 1.918605 -11.925581 169 153 128 
-1.825581 1.895349 -11.925581 174 197 164 
-1.802326 1.895349 -11.925581 164 183 152 
-1.776488 1.892598 -11.908273 189 202 171 
-1.753266 1.892598 -11.908273 213 220 189 
-1.730044 1.892598 -11.908273 201 201 168 
-1.706821 1.892598 -11.908273 202 198 164 
-1.681159 1.889855 -11.891014 222 218 182 
-1.657971 1.889855 -11.891014 225 224 186 
-1.634783 1.889855 -11.891014 222 225 189 
-1.611594 1.889855 -11.891014 207 217 182 
-1.590711 1.892598 -11.908273 188 202 168 
-1.567489 1.892598 -11.908273 197 213 182 
-1.544267 1.892598 -11.908273 212 228 200 
-1.521045 1.892598 -11.908273 207 223 196 
-1.497823 1.892598 -11.908273 201 215 188 
-1.474601 1.892598 -11.908273 202 215 188 
-1.451379 1.892598 -11.908273 211 223 196 
-1.428157 1.892598 -11.908273 227 236 209 
-1.404935 1.892598 -11.908273 230 233 206 
-1.381713 1.892598 -11.908273 236 230 205 
-1.358491 1.892598 -11.908273 237 221 199 
-1.337209 1.895349 -11.925581 215 189 170 
-1.313954 1.895349 -11.925581 198 161 143 
-1.290698 1.895349 -11.925581 202 164 146 
-1.267442 1.895349 -11.925581 213 182 160 
-1.244186 1.895349 -11.925581 205 177 152 
-1.825581 1.872093 -11.925581 169 186 152 
-1.802326 1.872093 -11.925581 186 198 165 
-1.776488 1.869376 -11.908273 214 222 189 
-1.753266 1.869376 -11.908273 222 225 192 
-1.730044 1.869376 -11.908273 217 215 182 
-1.704348 1.866667 -11.891014 220 215 180 
-1.681159 1.866667 -11.891014 225 221 184 
-1.657971 1.866667 -11.891014 223 222 184 
-1.634783 1.866667 -11.891014 221 224 186 
-1.611594 1.866667 -11.891014 213 222 185 
-1.588406 1.866667 -11.891014 195 208 173 
-1.567489 1.869376 -11.908273 203 218 184 
-1.544267 1.869376 -11.908273 208 223 191 
-1.521045 1.869376 -11.908273 195 210 180 
-1.497823 1.869376 -11.908273 192 208 177 
-1.474601 1.869376 -11.908273 202 218 187 
-1.451379 1.869376 -11.908273 219 230 199 
-1.428157 1.869376 -11.908273 232 235 205 
-1.404935 1.869376 -11.908273 231 223 195 
-1.381713 1.869376 -11.908273 224 206 181 
-1.360465 1.872093 -11.925581 212 185 161 
-1.337209 1.872093 -11.925581 197 164 141 
-1.313954 1.872093 -11.925581 200 160 139 
-1.290698 1.872093 -11.925581 208 169 148 
-1.267442 1.872093 -11.925581 214 180 155 
-1.244186 1.872093 -11.925581 211 176 148 
-1.825581 1.848837 -11.925581 206 213 178 
-1.802326 1.848837 -11.925581 215 220 185 
-1.776488 1.846154 -11.908273 224 226 191 
-1.753266 1.846154 -11.908273 224 225 190 
-1.730044 1.846154 -11.908273 223 222 186 
-1.704348 1.843478 -11.891014 221 218 183 
-1.681159 1.843478 -11.891014 219 216 180 
-1.655572 1.840810 -11.873806 220 220 183 
-1.632417 1.840810 -11.873806 220 225 187 
-1.611594 1.843478 -11.891014 215 224 186 
-1.588406 1.843478 -11.891014 199 211 174 
-1.565217 1.843478 -11.891014 201 213 178 
-1.544267 1.846154 -11.908273 212 224 190 
-1.521045 1.846154 -11.908273 211 222 188 
-1.497823 1.846154 -11.908273 211 226 192 
-1.474601 1.846154 -11.908273 221 232 199 
-1.451379 1.846154 -11.908273 231 231 200 
-1.428157 1.846154 -11.908273 225 211 183 
-1.404935 1.846154 -11.908273 209 182 156 
-1.381713 1.846154 -11.908273 201 164 140 
-1.360465 1.848837 -11.925581 199 155 132 
-1.337209 1.848837 -11.925581 196 150 127 
-1.313954 1.848837 -11.925581 210 163 141 
-1.290698 1.848837 -11.925581 228 186 163 
-1.267442 1.848837 -11.925581 228 190 164 
-1.244186 1.848837 -11.925581 208 170 139 
-1.825581 1.825581 -11.925581 218 218 182 
-1.802326 1.825581 -11.925581 220 221 184 
-1.776488 1.822932 -11.908273 222 223 186 
-1.753266 1.822932 -11.908273 223 224 187 
-1.730044 1.822932 -11.908273 221 223 186 
-1.704348 1.820290 -11.891014 213 214 178 
-1.681159 1.820290 -11.891014 202 204 168 
-1.655572 1.817656 -11.873806 206 210 174 
-1.632417 1.817656 -11.873806 214 221 184 
-1.611594 1.820290 -11.891014 217 227 190 
-1.588406 1.820290 -11.891014 206 215 179 
-1.565217 1.820290 -11.891014 202 212 176 
-1.544267 1.822932 -11.908273 220 229 194 
-1.521045 1.822932 -11.908273 224 234 199 
-1.497823 1.822932 -11.908273 226 236 201 
-1.474601 1.822932 -11.908273 229 232 199 
-1.451379 1.822932 -11.908273 222 208 179 
-1.428157 1.822932 -11.908273 207 174 150 
-1.406977 1.825581 -11.925581 204 157 135 
-1.383721 1.825581 -11.925581 204 150 129 
-1.360465 1.825581 -11.925581 205 149 127 
-1.337209 1.825581 -11.925581 205 149 127 
-1.315866 1.828239 -11.942940 206 151 131 
-1.292576 1.828239 -11.942940 209 160 139 
-1.269287 1.828239 -11.942940 208 166 139 
-1.247813 1.830904 -11.960350 204 164 131 
-1.802326 1.802326 -11.925581 191 205 167 
-1.779070 1.802326 -11.925581 198 212 174 
-1.753266 1.799710 -11.908273 209 221 184 
-1.730044 1.799710 -11.908273 219 226 190 
-1.704348 1.797101 -11.891014 212 218 181 
-1.681159 1.797101 -11.891014 188 200 161 
-1.655572 1.794501 -11.873806 179 197 157 
-1.632417 1.794501 -11.873806 187 204 166 
-1.609262 1.794501 -11.873806 207 220 184 
-1.588406 1.797101 -11.891014 213 220 187 
-1.565217 1.797101 -11.891014 203 209 177 
-1.542029 1.797101 -11.891014 208 219 186 
-1.521045 1.799710 -11.908273 218 234 199 
-1.497823 1.799710 -11.908273 226 237 202 
-1.474601 1.799710 -11.908273 220 212 181 
-1.453488 1.802326 -11.925581 207 175 152 
-1.430233 1.802326 -11.925581 204 155 137 
-1.406977 1.802326 -11.925581 207 153 135 
-1.383721 1.802326 -11.925581 206 156 137 
-1.360465 1.802326 -11.925581 205 157 136 
-1.339156 1.804949 -11.942940 204 154 134 
-1.315866 1.804949 -11.942940 202 148 131 
-1.294461 1.807580 -11.960350 201 149 129 
-1.271137 1.807580 -11.960350 204 160 130 
-1.247813 1.807580 -11.960350 212 174 134 
-1.228070 1.812865 -11.995321 215 182 135 
-1.802326 1.779070 -11.925581 172 195 158 
-1.779070 1.779070 -11.925581 174 199 162 
-1.755814 1.779070 -11.925581 187 207 171 
-1.730044 1.776488 -11.908273 205 218 183 
-1.706821 1.776488 -11.908273 213 223 186 
-1.681159 1.773913 -11.891014 194 211 172 
-1.655572 1.771346 -11.873806 173 197 157 
-1.632417 1.771346 -11.873806 170 194 155 
-1.609262 1.771346 -11.873806 188 207 170 
-1.588406 1.773913 -11.891014 211 222 189 
-1.565217 1.773913 -11.891014 211 217 187 
-1.542029 1.773913 -11.891014 202 213 183 
-1.521045 1.776488 -11.908273 205 222 189 
-1.497823 1.776488 -11.908273 215 222 188 
-1.474601 1.776488 -11.908273 203 187 159 
-1.453488 1.779070 -11.925581 199 159 139 
-1.430233 1.779070 -11.925581 205 152 136 
-1.406977 1.779070 -11.925581 212 163 146 
-1.383721 1.779070 -11.925581 225 185 164 
-1.360465 1.779070 -11.925581 225 187 166 
-1.339156 1.781659 -11.942940 210 167 147 
-1.317784 1.784257 -11.960350 201 152 133 
-1.294461 1.784257 -11.960350 204 156 132 
-1.271137 1.784257 -11.960350 214 172 137 
-1.249635 1.786861 -11.977810 218 184 138 
-1.229868 1.792094 -12.012884 216 187 133 
-1.217134 1.807976 -12.119349 213 187 131 
0.943063 0.981556 -6.579631 151 172 121 
0.955128 0.980769 -6.574359 136 161 112 
0.967949 0.980769 -6.574359 125 149 102 
0.980769 0.980769 -6.574359 124 144 98 
